# .PCD v0.7 - Point Cloud Data file format
VERSION 0.7
FIELDS x y z rgb
SIZE 4 4 4 4
TYPE F F F U
COUNT 1 1 1 1
WIDTH 1108
HEIGHT 1
VIEWPOINT 0 0 0 1 0 0 0
POINTS 1108
DATA ascii
-20.553368 -24.618351 1.2902868 4285228652
-20.525072 -24.428274 1.2847532 4285228139
-20.49835 -24.24169 1.279355 4285556588
-20.50452 -24.019073 1.2737838 4284899939
-20.474251 -23.831829 1.2683147 4285491820
-20.441725 -23.64349 1.2627772 4285228652
-20.406889 -23.454077 1.2571701 4284900204
-20.418051 -23.24547 1.2521371 4285493091
-20.483519 -23.174328 1.2518317 4285361760
-19.517828 -20.403309 1.1605631 4286544226
-19.374578 -19.813208 1.1428362 4286417225
-19.486361 -19.742601 1.1438361 4285360704
-19.540386 -19.674749 1.1435169 4286083662
-19.622259 -19.635164 1.1445578 4285031232
-19.619587 -19.51025 1.1415166 4284242745
-19.523787 -18.816322 1.1227915 4286284361
-19.595226 -18.651463 1.120715 4284703793
-19.917618 -18.784491 1.1318457 4286083896
-19.655727 -47.318874 1.7445832 4285166427
-19.436087 -46.369919 1.7157856 4284508499
-20.122765 -47.607441 1.7583274 4283915345
-18.737787 -42.594547 1.6036273 4286088274
-17.63772 -39.551907 1.5064813 4286611531
-17.857481 -39.714535 1.5137796 4287863902
-18.039276 -39.788628 1.5181862 4284639298
-18.14089 -39.517109 1.5121715 4288846960
-18.317841 -39.25354 1.5074205 4285295415
-17.141499 -36.251198 1.4104886 4286479689
-16.979893 -35.614086 1.3911285 4285162555
-16.417782 -33.868092 1.3364755 4287730028
-17.048779 -34.768284 1.3693836 4284441413
-17.35586 -35.123081 1.3831824 4284245318
-17.054651 -34.2337 1.35518 4284179531
-17.151798 -34.02726 1.3510554 4285033551
-17.003519 -33.466831 1.3340229 4283256118
-17.075331 -33.349918 1.3319514 4284044868
-17.167408 -33.273827 1.3312665 4284968022
-20.532898 -23.084988 1.2507091 4284703327
-20.643194 -22.991913 1.2509084 4284505436
-20.695803 -22.906717 1.2499889 4284836677
-20.768103 -22.843689 1.2500882 4286021211
-20.845072 -22.71397 1.2486533 4285692497
-20.910053 -22.643087 1.2484117 4285296465
-20.981537 -22.579369 1.248509 4286019673
-21.024342 -22.484617 1.2471775 4284636756
-21.129152 -22.386217 1.2472354 4284897883
-21.193003 -22.314507 1.2469906 4285226841
-21.347866 -22.1301 1.2461883 4285492556
-21.416382 -22.06352 1.2462134 4286284369
-19.998837 -18.744362 1.1329495 4286215728
-19.98111 -18.610785 1.1294256 4286741317
-20.194645 -18.694519 1.1367211 4286213450
-20.170256 -18.496765 1.1315852 4286410319
-19.967314 -18.194298 1.1195523 4288188771
-20.444891 -18.517782 1.1390287 4285161542
-20.439251 -18.338858 1.1348432 4285556059
-20.691767 -18.451605 1.1438389 4285358166
-20.742771 -18.381712 1.1435771 4285686619
-21.018913 -18.512177 1.1535929 4286212448
-21.148315 -18.33601 1.1530216 4285883484
-31.710999 -7.9321218 1.312494 4290164416
-31.711596 -7.826776 1.3116126 4281478458
-31.731691 -7.6736226 1.3110088 4292862177
-31.752216 -7.4682899 1.3099918 4291539112
-31.737991 -7.2028913 1.3074179 4289225068
-31.74592 -7.1001487 1.3068734 4288702315
-31.743771 -6.9952607 1.3059896 4288177510
-31.750105 -6.8402095 1.3050435 4287000903
-31.751005 -6.7363129 1.3042947 4287333702
-20.861423 -48.731529 1.7984281 4285888093
-20.532175 -47.538483 1.7616128 4287271005
-20.829943 -47.821487 1.7731531 4282800162
-18.64518 -40.294926 1.5399624 4287137355
-17.280186 -33.11039 1.3285816 4283387968
-17.845398 -33.946972 1.3589803 4288126071
-17.485319 -33.001106 1.3287162 4284836426
-18.00424 -33.608368 1.3524103 4285230672
-18.141823 -33.614201 1.3546211 4284573255
-18.247454 -33.559647 1.3547783 4287927400
-17.203323 -30.243046 1.2522898 4287728988
-17.22707 -29.847874 1.2424264 4284311613
-17.075121 -29.051899 1.2194884 4284571454
-16.857838 -28.169001 1.1933341 4284967000
-17.034866 -28.067564 1.193604 4283322439
-21.847088 -21.54771 1.2442993 4287335251
-21.886814 -21.452837 1.2430277 4285428278
-21.951786 -21.383141 1.2429804 4285758017
-22.111469 -21.205952 1.2427732 4285690683
-22.509222 -19.651329 1.2174028 4286212957
-23.132231 -19.947239 1.2400875 4287133279
-22.462467 -19.181454 1.2058138 4285952316
-21.546186 -18.27573 1.1620524 4286215996
-23.336769 -19.684437 1.239659 4287136063
-22.932732 -18.498003 1.2034519 4287002983
-22.888876 -18.344709 1.1990302 4286805353
-22.841608 -18.131239 1.193267 4286937452
-23.019474 -18.156895 1.1985791 4286739820
-23.042603 -18.058943 1.1971511 4286805356
-23.264906 -18.059261 1.203163 4286015585
-27.787901 -11.38638 1.2230765 4285754216
-27.92802 -11.3423 1.2269099 4285622378
-29.603773 -9.1012316 1.2545949 4283451961
-29.61603 -9.0036621 1.2539946 4283914305
-29.614603 -8.9020481 1.2529198 4284442184
-31.726143 -8.1475077 1.3148652 4288976298
-31.713907 -8.0385132 1.3135095 4288389551
-18.409348 -33.483345 1.3552291 4286347096
-19.285885 -34.837044 1.4039438 4287203410
-19.276718 -34.563675 1.3966734 4284375620
-19.327137 -34.400738 1.3932066 4285034059
-19.151304 -33.465755 1.3662028 4287269194
-17.754805 -30.441013 1.2660623 4285031239
-17.334812 -28.770834 1.2164414 4284179289
-17.339025 -28.373899 1.2063748 4285098080
-17.381142 -28.144707 1.2012314 4284769368
-17.598368 -28.30184 1.2088026 4284571222
-17.306728 -27.633886 1.1870428 4286215021
-18.074879 -28.574696 1.2236278 4283583286
-17.877243 -28.063776 1.2074283 4290950537
-17.851046 -27.829409 1.2010866 4291219322
-17.996241 -27.769716 1.202045 4290955878
-18.01429 -27.608053 1.1983017 4288187468
-17.545012 -25.041315 1.1265326 4294427807
-23.437511 -19.582745 1.240098 4285755958
-23.517914 -19.526192 1.2409887 4287334469
-23.556732 -19.434822 1.240041 4286346043
-23.630625 -19.372681 1.240659 4287003471
-23.720716 -19.261858 1.2406858 4287003482
-23.503502 -18.128836 1.2110598 4287266165
-24.134729 -18.500036 1.2358403 4287397750
-24.047646 -18.313875 1.2296436 4287002992
-24.404623 -18.407827 1.2413039 4285753957
-24.442312 -18.31707 1.240485 4286345840
-24.524378 -18.259836 1.2415706 4286148462
-24.599594 -18.137602 1.2411786 4286412146
-24.668407 -18.070173 1.2417194 4285753704
-24.722525 -17.991854 1.2416458 4286608501
-24.822254 -17.887566 1.2423409 4286345589
-24.893621 -17.821629 1.2430159 4286279537
-24.927464 -17.72864 1.2421235 4286016618
-25.001661 -17.664577 1.2429335 4286740082
-25.096756 -17.556431 1.2434901 4286740852
-25.14105 -17.471058 1.2430725 4286411374
-25.208019 -17.401531 1.2436075 4286213227
-25.298679 -17.289991 1.2440257 4286936690
-25.351954 -17.210848 1.2440147 4286410858
-25.433071 -17.150608 1.2451606 4286344811
-25.495855 -17.077744 1.2455579 4286148715
-25.560156 -16.948042 1.2449509 4286016614
-25.627333 -16.878006 1.2455503 4286213997
-25.706015 -16.815397 1.2466265 4285951336
-25.77733 -16.690321 1.2463577 4286938231
-25.853868 -16.625938 1.2473637 4286740591
-25.910103 -16.548271 1.2475531 4286608751
-25.988541 -16.427652 1.2476223 4286739823
-26.052622 -16.354851 1.2481508 4286871149
-26.101274 -16.272249 1.2480661 4287002735
-26.180166 -16.208506 1.2492052 4286410855
-26.251907 -16.083441 1.2490673 4286871404
-26.320139 -16.012732 1.2497975 4287725688
-26.388163 -15.941755 1.2505263 4287331187
-26.470604 -15.82294 1.2508626 4287397492
-26.546713 -15.756458 1.2519314 4286673768
-26.612341 -15.68353 1.2525904 4287133295
-26.678114 -15.554454 1.2523117 4287134065
-26.751831 -15.486001 1.2533107 4287397498
-26.820175 -15.414232 1.2541039 4284963939
-26.876205 -15.335224 1.2544202 4285031017
-26.969818 -15.221751 1.2552966 4285688429
-27.016582 -15.137291 1.2552713 4285885032
-27.101444 -15.074142 1.2567437 4284898657
-27.174742 -14.948713 1.2568692 4286542190
-27.250406 -14.879949 1.2579989 4286016868
-27.306614 -14.800336 1.2583796 4286542442
-27.412046 -14.691898 1.2597959 4285951599
-27.453623 -14.604141 1.2596309 4286546824
-27.533726 -14.536878 1.2609624 4292268749
-27.613691 -14.469249 1.2622944 4292661961
-27.677074 -14.337603 1.2621416 4293055949
-27.763639 -14.272903 1.2637434 4292990155
-27.809214 -14.186831 1.2637806 4292924360
-26.335917 -13.275308 1.2049729 4282527783
-26.348032 -13.178441 1.203853 4288973951
-26.418776 -13.111069 1.2049789 4291211669
-26.486492 -12.990412 1.2052312 4284363823
-26.540619 -12.914461 1.2057436 4286014555
-26.610699 -12.84614 1.2068677 4286015068
-26.83334 -12.696711 1.2115053 4286738016
-26.886639 -12.619454 1.2120153 4287658604
-28.524042 -13.28416 1.2721134 4287461479
-28.641567 -13.17601 1.2741959 4286475101
-28.690989 -13.090399 1.2744981 4286673253
-28.763775 -13.015348 1.2756829 4285752926
-28.847527 -12.890703 1.2765388 4285753702
-28.917992 -12.814076 1.2776555 4285752930
-28.973625 -12.730685 1.2782263 4286673515
-29.054634 -12.658278 1.2797488 4286410597
-29.12953 -12.528739 1.2803307 4291540622
-29.210043 -12.455505 1.2818519 4292657056
-29.25548 -12.367044 1.2820812 4287329385
-29.364071 -12.251038 1.2839531 4286279531
-27.795324 -11.491027 1.2246832 4285753960
-29.6492 -11.883529 1.2881336 4284899939
-29.729984 -11.808309 1.2897183 4284834663
-29.784601 -11.722417 1.2903515 4284768871
-29.881357 -11.598963 1.2918768 4284439653
-29.940948 -11.514595 1.2927117 4283519064
-30.011509 -11.434252 1.2939551 4285360233
-30.094007 -11.304303 1.2950021 4285687388
-30.162127 -11.222492 1.296175 4285818971
-30.23004 -11.140362 1.2973485 4284965205
-30.51708 -11.138399 1.3064719 4285424998
-30.921387 -11.12242 1.3192061 4285031263
-31.350115 -11.166773 1.3334246 4285031266
-31.728586 -11.190509 1.3458053 4283912016
-32.224983 -11.196516 1.3617946 4285886569
-32.615829 -11.218698 1.3745806 4286083942
-33.007114 -11.238533 1.3873637 4286018389
-31.61442 -10.376841 1.3330487 4283914063
-31.645948 -10.277621 1.3329902 4283320649
-34.820087 -10.297062 1.4360852 4284047165
-33.101971 -9.6739855 1.3740205 4283388720
-35.586109 -10.282622 1.4608675 4283849530
-33.469341 -9.5547009 1.384822 4284704580
-41.429382 -8.3266926 1.6369612 4285953617
-40.934906 -7.8932748 1.617524 4285164353
-48.479897 -7.5508318 1.8671434 4286284863
-48.449173 -7.3902836 1.8651978 4285821756
-48.449543 -7.234714 1.864338 4284702511
-50.39109 -7.1218743 1.9287956 4287070775
-18.684599 -28.258324 1.22603 4293118113
-19.05913 -28.537846 1.2394546 4294042577
-19.219824 -28.58672 1.2434571 4291936678
-19.397678 -28.659767 1.248367 4294964961
-18.96936 -27.738556 1.2180893 4292893600
-19.138855 -27.801773 1.222634 4292895638
-19.021751 -27.445704 1.2118007 4294884276
-17.654766 -25.032707 1.1282849 4294432969
-17.768091 -25.028553 1.1302186 4287922559
-17.890778 -25.03698 1.132636 4285752172
-18.044888 -25.005548 1.1346664 4285753190
-18.162163 -25.004635 1.1367803 4286082411
-18.223373 -24.925524 1.1359863 4285819239
-18.342146 -24.843708 1.1361978 4285819746
-18.560186 -24.978216 1.1434594 4285293655
-18.674587 -24.970289 1.1453899 4286279787
-33.503513 -11.232945 1.4032789 4285162069
-33.982948 -11.276218 1.4191847 4284899413
-35.387424 -11.315283 1.4649254 4282597699
-35.857731 -11.342666 1.4804137 4286546042
-36.29425 -11.356437 1.4946772 4288780680
-36.540424 -10.250073 1.4916937 4283520567
-36.871643 -10.218879 1.5022109 4284113210
-37.264656 -10.202622 1.5149003 4285296978
-39.67506 -10.66509 1.598055 4280956469
-44.378681 -8.7772408 1.7380998 4284113458
-44.781811 -8.4926987 1.7495651 4285098811
-47.001774 -8.7627134 1.8252553 4284112443
-46.858498 -8.2041903 1.8168689 4287007841
-48.699959 -8.1344481 1.8779187 4284114245
-48.614021 -7.9632187 1.8740088 4283588408
-50.571274 -7.3906531 1.9362302 4286937659
-61.726093 -7.8424377 2.3126783 4286743863
-61.295738 -7.5919247 2.2970192 4287864390
-18.833101 -24.939112 1.1475992 4285819496
-18.95377 -24.938019 1.1498318 4285950825
-19.074619 -24.936401 1.152064 4286017129
-19.1896 -24.926323 1.153993 4286148715
-45.272388 -12.023836 1.7937342 4288590527
-45.415241 -11.909564 1.7973758 4288389817
-48.806053 -9.9752426 1.8936613 4283587648
-51.796612 -9.4920168 1.9897363 4283785277
-52.264397 -9.3238049 2.0042627 4283720519
-54.88612 -9.4379625 2.0923977 4284440890
-61.174057 -8.4565725 2.2972066 4286675000
-61.700027 -8.332098 2.3141918 4287066428
-61.951527 -8.0690622 2.3213611 4286474291
-20.766932 -26.7332 1.2266841 4287003254
-20.756908 -26.548523 1.2221305 4287266685
-20.721355 -26.332657 1.2163639 4287727232
-20.733068 -26.094534 1.2109975 4286938228
-20.693638 -25.878111 1.2051668 4286542707
-20.665546 -25.677795 1.1999418 4286740858
-20.623852 -25.462337 1.1941088 4285688945
-20.628204 -25.224693 1.1886746 4285097580
-20.599083 -25.028881 1.1835668 4285032043
-20.565121 -24.828859 1.1782756 4285162858
-20.575144 -24.605057 1.1733215 4284834151
-20.536228 -24.402922 1.1679069 4285096554
-20.506521 -24.213507 1.1629758 4284898918
-20.503191 -23.980478 1.1575924 4285161828
-20.484161 -23.80719 1.153266 4285228390
-20.445992 -23.613037 1.1480887 4284636772
-20.404198 -23.416323 1.1427892 4284505444
-20.447756 -23.245649 1.1398268 4284637280
-20.493469 -23.151924 1.1386507 4284636763
-20.557297 -23.079105 1.1383227 4284505186
-20.655666 -22.972536 1.137966 4284440151
-20.722876 -22.903717 1.1378187 4285889882
-20.771084 -22.81395 1.1368212 4283915585
-20.876167 -22.715322 1.1368258 4284703567
-20.930349 -22.632605 1.1361302 4284637261
-19.646557 -20.517004 1.0628119 4285886295
-19.365589 -19.784506 1.0410032 4285559363
-19.636885 -19.876579 1.0488249 4286087237
-19.525671 -19.640453 1.0413811 4286087501
-19.556545 -19.428129 1.0375409 4285624133
-19.479879 -18.757092 1.0217658 4284898871
-19.895908 -18.922974 1.0344342 4285753415
-19.749058 -18.60709 1.024639 4285622838
-19.854553 -18.590771 1.0266606 4286939199
-19.808413 -18.431881 1.0223652 4286609476
-20.152124 -18.636995 1.0342847 4286212180
-19.983166 -18.30698 1.0237571 4286806362
-19.985197 -18.194721 1.0215251 4284636742
-20.267525 -18.338257 1.0308322 4286082141
-21.00049 -22.567375 1.1361622 4284900185
-21.043215 -22.472664 1.1349803 4284964449
-21.154865 -22.381493 1.1353452 4285555551
-21.200876 -22.290865 1.1343433 4285423960
-21.354225 -22.105057 1.1335821 4285686874
-21.422699 -22.038488 1.13361 4285293392
-21.692104 -21.699373 1.1321678 4284967737
-21.838844 -21.508766 1.1313347 4286482246
-21.915428 -21.450468 1.1317835 4286941512
-21.966131 -21.366739 1.1311383 4284638257
-22.121489 -21.185352 1.1307853 4285621574
-20.677923 -18.536514 1.0441725 4285358168
-22.07785 -19.675076 1.0989748 4285226581
-20.690741 -18.316959 1.0400681 4285753184
-21.125225 -18.528133 1.0542581 4285818975
-22.359421 -19.49369 1.1018342 4285227350
-21.141512 -18.31081 1.0503324 4286476127
-29.645964 -9.0913267 1.1425476 4285295179
-29.633316 -8.9861574 1.1412195 4284703812
-29.608828 -8.8777189 1.1395289 4282730538
-31.728836 -8.1213293 1.1949494 4289505981
-31.720373 -8.0134497 1.1938564 4289506492
-31.715414 -7.9066525 1.1928831 4289108648
-31.719803 -7.8023424 1.1922123 4284439912
-31.735912 -7.6483188 1.1915485 4293451748
-31.793268 -7.4517441 1.1917791 4287979107
-31.757404 -7.1814623 1.1888063 4289300379
-31.751608 -7.0756974 1.187891 4288579224
-31.772009 -6.9236274 1.1874665 4286209876
-31.779043 -6.8209462 1.1869743 4286675796
-31.762262 -6.7133522 1.1857554 4284573244
-11.168044 -24.475279 0.80973947 4285030713
-23.251205 -19.832628 1.1291698 4286084152
-23.300354 -19.749662 1.1286941 4285820730
-23.37364 -19.687233 1.1291906 4286939197
-23.442307 -19.558426 1.1283131 4287068748
-23.521202 -19.500565 1.1290504 4286280254
-23.561476 -19.410543 1.1282691 4286873147
-23.632301 -19.345835 1.1287022 4286412103
-23.651039 -19.176998 1.1259379 4286280022
-22.917912 -18.461866 1.0949578 4286542182
-22.786444 -18.238747 1.0876111 4286673000
-23.004076 -18.121279 1.0906197 4286015070
-23.316151 -18.250782 1.1005268 4286147424
-23.724348 -18.393188 1.1130081 4286345062
-23.349541 -17.98521 1.0964226 4286345062
-23.490641 -17.978031 1.0997051 4286279269
-24.34366 -18.513554 1.130209 4286476648
-24.412243 -18.386122 1.1295639 4286345576
-24.481798 -18.319435 1.1300496 4286016870
-26.354483 -13.263633 1.0976889 4282726188
-26.357609 -13.16233 1.0963852 4289501829
-26.41765 -13.089565 1.0970237 4292460454
-26.501499 -12.976866 1.0977964 4284103473
-26.562849 -12.904358 1.0984954 4286409827
-26.620386 -12.829848 1.0990714 4286344033
-26.825584 -12.825865 1.1046261 4286541155
-26.839676 -12.678439 1.1030893 4286803814
-26.902031 -12.605392 1.1038457 4287198570
-27.796593 -11.469845 1.1146483 4285885289
-27.800173 -11.369862 1.1135769 4285556324
-33.187531 -9.5541458 1.2492959 4283915072
-11.263617 -24.484785 0.81090438 4289045093
-24.535158 -18.24053 1.1299272 4285885543
-24.632851 -18.134945 1.1304342 4285687913
-24.700123 -18.066236 1.1308581 4286411636
-24.739744 -17.977242 1.1302474 4286675319
-24.846012 -17.877575 1.1311167 4286083181
-24.884943 -17.788252 1.130505 4286938491
-24.956114 -17.722052 1.1311077 4286872697
-25.030392 -17.657887 1.1318325 4286346094
-25.104263 -17.534718 1.1315433 4286148713
-25.178049 -17.469921 1.1322658 4286346092
-25.215508 -17.379827 1.1316516 4286609264
-25.317701 -17.276178 1.132454 4286213993
-25.369329 -17.195879 1.1323848 4286609005
-25.438934 -17.127733 1.1329842 4286412137
-25.513508 -17.005009 1.1328119 4286542958
-25.585917 -16.938484 1.1335306 4286016618
-25.641487 -16.860659 1.1336421 4285951340
-25.713541 -16.793598 1.1343607 4286083952
-25.794874 -16.675077 1.1344892 4286148974
-25.866444 -16.607376 1.1352063 4285754217
-25.90752 -16.519991 1.1348284 4286937976
-26.023056 -16.422953 1.1362307 4286411372
-26.068586 -16.33835 1.1360346 4286608753
-26.151142 -16.276886 1.1371739 4286345581
-26.184282 -16.18454 1.1365505 4286411376
-26.27985 -16.074135 1.1372823 4285753706
-26.33276 -15.993986 1.1373868 4285491305
-26.404245 -15.925025 1.138159 4285557866
-26.484999 -15.805143 1.1384023 4285623664
-26.56287 -15.739606 1.1394165 4285557614
-26.609587 -15.655464 1.1393361 4285162603
-26.715019 -15.549628 1.1404886 4284768613
-26.764612 -15.467011 1.1405295 4284571492
-26.846857 -15.403169 1.1417234 4284571237
-26.889051 -15.316153 1.1415201 4284637291
-26.982681 -15.202636 1.1423042 4284965220
-27.036417 -15.122069 1.142524 4286476916
-27.126606 -15.061728 1.1440201 4285227364
-27.194651 -14.933335 1.1439513 4286081127
-27.280912 -14.870225 1.1453235 4286213222
-27.321367 -14.78195 1.1451168 4286739308
-27.43037 -14.675309 1.1465036 4285492072
-27.475466 -14.589417 1.1464769 4290428351
-27.560968 -14.524842 1.1478477 4292136141
-27.605589 -14.43854 1.1478198 4292136137
-27.706177 -14.326286 1.1489606 4292267462
-27.74663 -14.237696 1.1488111 4292333515
-27.838451 -14.175313 1.1504223 4292530888
-28.622492 -13.140608 1.1580721 4286936681
-28.710058 -13.072481 1.159614 4286739563
-28.795654 -13.003098 1.1610944 4286082407
-28.857574 -12.868526 1.161131 4286016614
-28.920763 -12.788617 1.1618828 4286148712
-28.981895 -12.707623 1.1625721 4286411884
-29.040977 -12.625566 1.1632013 4287004539
-29.137852 -12.505579 1.164448 4290357650
-29.220264 -12.433053 1.165864 4289104259
-29.276745 -12.349235 1.1664306 4286606958
-29.376179 -12.229236 1.1677965 4286148202
-29.661446 -11.861463 1.1715188 4285162083
-29.747883 -11.788368 1.1731135 4285162857
-29.795061 -11.69949 1.173432 4284834662
-29.888132 -11.574507 1.1746711 4285097836
-29.955215 -11.492973 1.1756569 4284175705
-30.029558 -11.413972 1.1768848 4285885289
-30.108345 -11.282524 1.1776968 4286608488
-30.17277 -11.199245 1.1786202 4285029978
-30.257593 -11.123258 1.1802089 4285030493
-30.584587 -11.135025 1.1896223 4285556837
-31.012234 -11.126094 1.2017145 4285031261
-31.45122 -11.172636 1.2147033 4284833885
-31.851189 -11.202617 1.2264166 4285426535
-32.327831 -11.199911 1.2400197 4284767322
-32.694843 -11.212581 1.2506379 4284307536
-33.124725 -11.244241 1.2632555 4284373836
-33.616417 -11.235272 1.2772772 4282006326
-34.096767 -11.277231 1.2914677 4282860870
-34.577705 -11.316276 1.3056558 4283058251
-34.716629 -10.229452 1.2996035 4284309052
-36.693596 -10.437682 1.3587894 4283452984
-36.512337 -10.201003 1.3515164 4285755985
-37.056038 -10.227689 1.3675632 4284309822
-37.25301 -10.15655 1.3727007 4282796602
-37.560337 -10.050797 1.3808138 4283656053
-41.517651 -8.2939653 1.4844784 4284967752
-50.398415 -7.0529914 1.7419091 4286806856
-35.099182 -11.365336 1.3211167 4282860876
-35.595367 -11.341412 1.3351908 4284835430
-36.106682 -11.379837 1.350282 4287137405
-36.67205 -11.431791 1.3670697 4290359193
-37.089748 -10.8017 1.3734733 4283782712
-39.76371 -10.506091 1.4488304 4288062641
-47.840553 -9.3978624 1.6786151 4283983167
-45.401249 -8.6981411 1.6020401 4287336024
-46.16629 -8.6943407 1.6246858 4285492805
-47.002544 -8.6988659 1.6495075 4284770632
-51.205158 -9.3085928 1.7778209 4284377932
-46.880627 -8.2966585 1.6435547 4285164370
-52.114162 -9.0517397 1.8033615 4284441158
-48.828526 -8.0885172 1.7003254 4283587909
-48.789688 -7.9249129 1.6982795 4283652929
-50.142982 -7.7408438 1.7376578 4286482002
-50.035721 -7.5636549 1.7335522 4285295152
-50.226501 -7.4312778 1.7385746 4286216503
-50.387249 -7.2934752 1.7426869 4287792963
-45.050381 -11.749791 1.6132721 4288389812
-48.867859 -9.9179125 1.7123494 4284638797
-54.483036 -9.2861414 1.8750881 4283652665
-61.427887 -8.394558 2.077631 4285228078
-61.912876 -8.2627439 2.0915036 4285883436
-67.220543 -10.693168 2.2618039 4283518005
-15.803743 -38.279739 1.1362664 4283586122
-15.990706 -38.224773 1.1369156 4283653195
-16.109869 -38.175293 1.137048 4284047701
-16.239647 -38.151264 1.1378109 4284112718
-16.416079 -38.070217 1.1378711 4285295433
-16.536312 -38.023079 1.1380913 4284443964
-16.657206 -37.977386 1.138356 4284704588
-17.153471 -36.135387 1.1062109 4285429075
-17.057013 -35.637241 1.0952138 4285360708
-17.356236 -35.981762 1.10527 4286875231
-17.527748 -36.052406 1.1085039 4283323196
-16.835695 -34.189312 1.0639294 4284838482
-17.315018 -34.902561 1.0832965 4284441420
-16.961267 -33.907059 1.05967 4284112967
-17.51619 -34.355824 1.0746373 4283454788
-19.116091 -42.7696 1.2600834 4287139169
-11.084471 -24.446228 0.70473665 4284310598
-11.147339 -24.38307 0.70422268 4285363033
-11.195168 -24.286961 0.703035 4282928171
-20.131145 -43.410175 1.2833478 4284639816
-11.331012 -24.284475 0.70416957 4283323189
-20.20059 -43.204212 1.2799225 4283191600
-18.292101 -36.187054 1.1194348 4284835663
-17.578144 -34.212307 1.0724825 4283058758
-17.511972 -33.687237 1.0613793 4283716418
-17.666243 -33.728905 1.0639263 4285822291
-17.388496 -32.936066 1.0452044 4283783224
-18.135277 -34.114956 1.0768038 4287468392
-18.048414 -33.563984 1.0650127 4284835925
-18.637701 -34.418186 1.0884736 4284441678
-18.725023 -34.323353 1.0876254 4285626460
-18.565586 -33.397102 1.0677302 4284965443
-17.425743 -30.515213 0.99843651 4288256873
-17.55311 -30.518583 1.0000196 4283980361
-17.601561 -30.382513 0.99797702 4282925878
-17.760605 -30.329958 0.99888259 4284965708
-17.595249 -29.82708 0.98722732 4283124536
-17.699099 -29.791479 0.98780972 4283911746
-17.730688 -29.526596 0.98313391 4285292891
-17.173796 -28.380825 0.95441926 4286804326
-17.60811 -28.905357 0.96978152 4283189561
-17.264378 -28.131992 0.95081002 4283320647
-17.487417 -28.201738 0.95492303 4285228385
-17.283304 -27.672319 0.94234079 4284241244
-18.72934 -33.947979 1.0803566 4286744399
-19.364855 -34.60157 1.1004859 4287662683
-19.342646 -34.307262 1.0945166 4286214978
-18.512848 -29.468111 0.99178195 4285228640
-18.310652 -28.83774 0.97733915 4285820240
-18.353891 -28.509354 0.9717257 4284441905
-18.614296 -28.622381 0.97720134 4285099047
-17.977705 -27.439163 0.94685584 4285099312
-18.968309 -28.778034 0.9847039 4282203672
-19.097107 -28.779325 0.98641157 4282862132
-19.113787 -28.51178 0.98166955 4286480234
-19.124016 -28.143604 0.9749971 4283512113
-19.152563 -27.902058 0.9709307 4286461786
-18.286776 -24.90905 0.90462059 4286016619
-21.295433 -33.381809 1.1008654 4282992166
-19.286478 -28.578867 0.9851926 4294567123
-19.494556 -28.217539 0.98131269 4285018693
-19.401428 -27.893192 0.97411025 4285939539
-19.488367 -19.82383 0.83592534 4285490251
-19.694906 -18.76368 0.82262433 4286147917
-19.938972 -18.880699 0.82853198 4287726680
-21.02784 -29.963291 1.0339835 4284827726
-21.047836 -29.792934 1.0311457 4285222233
-21.015308 -29.549124 1.0262612 4285421919
-20.98954 -29.317236 1.0216937 4285359201
-20.99654 -29.036961 1.0167145 4286543220
-20.969007 -28.807678 1.0121886 4286280048
-20.901857 -28.061163 0.99782687 4287135097
-20.87372 -27.840286 0.99347705 4287332219
-20.869791 -27.563444 0.9884851 4287332731
-20.838856 -27.343575 0.98413163 4286478193
-20.817636 -27.1385 0.98018718 4286543475
-20.768654 -26.898855 0.97523952 4286477167
-20.777262 -26.649757 0.97096783 4287266935
-20.743746 -26.43499 0.96670008 4286608237
-20.707842 -26.219114 0.962385 4286805619
-20.730125 -25.995152 0.95879048 4286214509
-20.702839 -25.794344 0.95488268 4287004030
-20.653299 -25.567396 0.95019925 4285820787
-20.661091 -25.332338 0.9462353 4284900457
-20.632742 -25.136047 0.94241446 4284899945
-20.604616 -24.941727 0.93863761 4284439651
-20.571667 -24.743189 0.93472302 4284242527
-20.565994 -24.500864 0.93047959 4284702306
-20.549809 -24.32634 0.9272455 4284702306
-20.509602 -24.124598 0.92319036 4284701276
-20.523977 -23.91287 0.91980809 4284570210
-20.478794 -23.709084 0.91565925 4284307551
-20.46899 -23.548262 0.91278511 4284439134
-20.412657 -23.334806 0.9083156 4284504670
-20.513597 -23.230362 0.90811628 4284307298
-20.564482 -23.14246 0.90742642 4284308069
-20.630911 -23.072432 0.90728331 4283913819
-20.730509 -22.967033 0.90708131 4283781967
-20.76829 -22.865286 0.90597898 4285559646
-20.848511 -22.810987 0.90633512 4284243029
-20.941389 -22.698738 0.90594798 4284308577
-21.002239 -22.623194 0.90566403 4284044379
-21.047916 -22.53134 0.90487838 4284504158
-21.098661 -22.445261 0.90427393 4284240212
-21.216934 -22.361174 0.90479517 4285292374
-21.275242 -22.283432 0.90446389 4285685592
-21.330475 -22.20265 0.90403968 4285620310
-21.431171 -22.099989 0.90401113 4286084951
-21.496836 -22.030317 0.90395087 4286085204
-21.642187 -21.836739 0.9032197 4285489995
-21.709795 -21.769278 0.90324867 4285624904
-20.254908 -18.885519 0.83393866 4286809160
-20.170372 -18.688454 0.82948464 4285557318
-20.222248 -18.62015 0.82932097 4284898127
-20.297096 -18.514717 0.82899898 4285358683
-20.475021 -18.562216 0.83275932 4285227357
-20.569267 -18.532051 0.8339178 4284898134
-20.667734 -18.331385 0.83260489 4285293145
-21.254078 -18.330254 0.84277773 4286217019
-15.830694 -38.195923 0.97496122 4284508770
-21.747614 -21.67181 0.90231842 4285559880
-21.82033 -21.609674 0.90252805 4286150981
-21.928101 -21.514599 0.90281343 4285363515
-21.987556 -21.43922 0.90261102 4285558320
-22.023918 -21.341293 0.90167797 4285952567
-22.133369 -21.247953 0.90205204 4286476874
-22.329613 -20.973831 0.90110201 4286083661
-21.972612 -19.624907 0.87449956 4286016097
-22.848467 -20.16048 0.89763457 4285490270
-22.873383 -19.992622 0.89557725 4286016097
-23.083866 -20.051727 0.90011269 4285557070
-23.213638 -19.91267 0.90032458 4286217020
-23.30476 -19.802624 0.90031886 4285688123
-23.367496 -19.731173 0.90037853 4286541395
-23.433029 -19.6621 0.9005276 4286936155
-23.530609 -19.557447 0.90074772 4287067485
-23.595634 -19.487825 0.90089619 4287397214
-23.649679 -19.409048 0.90072358 4286739286
-23.726034 -19.286821 0.90034753 4287396711
-22.771257 -18.385572 0.87044096 4287002214
-22.782965 -18.278013 0.86912417 4286147425
-22.935869 -18.284578 0.8719632 4286147684
-23.120853 -18.256834 0.87491763 4286147426
-23.076262 -17.988688 0.87036133 4286082405
-23.14094 -17.86581 0.86984193 4286542699
-23.839041 -18.291512 0.88843775 4286740077
-29.687254 -9.0491533 0.9103567 4284703304
-29.63435 -8.9316921 0.90839154 4283913282
-31.808928 -7.5078182 0.94721705 4284302156
-31.788675 -7.3979754 0.94615293 4284496702
-16.017345 -38.1409 0.97553819 4283718225
-16.138577 -38.096939 0.97578615 4282731334
-16.26355 -38.061802 0.97621995 4283191364
-16.444283 -37.991779 0.97653288 4285297990
-16.568253 -37.953793 0.97692788 4285033801
-15.735656 -24.084976 0.74428827 4288515442
-15.796248 -24.01449 0.7438634 4285227352
-24.062149 -18.8857 0.90073127 4286081890
-24.330984 -18.552147 0.90100348 4287134578
-24.402554 -18.487053 0.90141928 4286937200
-24.486862 -18.371443 0.90139979 4286147689
-24.549932 -18.299732 0.90158433 4286279787
-24.612803 -18.227814 0.9017691 4285951339
-24.702299 -18.115963 0.90192991 4286280048
-24.7453 -18.029295 0.90156442 4286675319
-24.808981 -17.957865 0.90179294 4286281586
-24.908581 -17.85322 0.90227121 4286412914
-24.958761 -17.771873 0.90213215 4286872951
-25.024954 -17.701988 0.9024502 4286477680
-25.079521 -17.623772 0.90244704 4286346608
-25.179346 -17.518753 0.90296793 4286082669
-25.233351 -17.440048 0.90296429 4286675061
-25.285458 -17.360027 0.90291357 4286279786
-25.372635 -17.245918 0.90311217 4285951083
-25.440664 -17.176718 0.9035188 4285951596
-25.501863 -17.102762 0.90374035 4285885292
-25.589529 -16.988672 0.90398228 4286477940
-25.665169 -16.924147 0.90461451 4286017387
-25.717293 -16.843889 0.90460581 4286346608
-25.787544 -16.77552 0.90509909 4285885549
-25.868731 -16.656687 0.90520173 4286806651
-25.930094 -16.582272 0.90546525 4286346356
-25.991236 -16.507641 0.90572816 4286346095
-26.06612 -16.384581 0.90569144 4286279789
-26.135149 -16.314751 0.90618151 4286543473
-26.202301 -16.243591 0.90662533 4286674547
-26.291224 -16.129 0.9069975 4285425255
-26.349356 -16.051983 0.9072116 4285491822
-26.414093 -15.978909 0.90760779 4285886583
-26.471821 -15.901443 0.90782261 4285426546
-26.555798 -15.783324 0.90809941 4285163374
-26.609482 -15.703305 0.90821975 4284767845
-26.67671 -15.631208 0.90870589 4285097324
-26.757753 -15.510993 0.90893471 4284768618
-26.81926 -15.435283 0.90928161 4284176226
-26.890961 -15.365303 0.90990293 4285623925
-26.950319 -15.288089 0.91020298 4284965997
-27.059385 -15.183152 0.91120529 4286609272
-27.114758 -15.103354 0.91141367 4284569179
-27.183846 -15.031123 0.91198587 4286147949
-27.274431 -14.91502 0.91252911 4286543211
-27.332521 -14.836351 0.91282701 4286411372
-27.386852 -14.755562 0.913032 4289175189
-27.462183 -14.630693 0.91320753 4292136138
-27.542393 -14.563499 0.91409832 4289634213
-27.61182 -14.490347 0.91471249 4292135365
-27.666906 -14.409458 0.91496074 4292267462
-27.760172 -14.293283 0.9156366 4292464841
-26.261942 -13.412984 0.87597334 4292333511
-26.2799 -13.318969 0.87535369 4292068533
-26.366419 -13.208134 0.87598222 4288713350
-26.42116 -13.132744 0.8763203 4290421392
-26.475689 -13.057136 0.8766579 4293446317
-26.555725 -12.94245 0.87714726 4286212450
-26.624079 -12.873296 0.87784892 4286015841
-26.685062 -12.800361 0.8783673 4286081119
-26.834145 -12.769475 0.88112313 4286344034
-26.887669 -12.640826 0.88096952 4286541412
-28.630932 -13.248343 0.92290324 4286936943
-28.701178 -13.117949 0.92311168 4286147943
-28.779501 -13.045449 0.92403537 4285951081
-28.835817 -12.962705 0.92441189 4285819497
-28.90476 -12.831225 0.92461807 4285490271
-28.99333 -12.762511 0.92581367 4286608749
-29.076279 -12.690949 0.92687297 4285360228
-29.120583 -12.602235 0.92697209 4288518038
-29.237432 -12.490588 0.92840731 4292066474
-29.303196 -12.410709 0.92905396 4285485394
-29.346643 -12.32122 0.92915136 4286148209
-27.789988 -11.510519 0.88920277 4285687399
-27.784492 -11.406667 0.88816172 4285950055
-27.880285 -11.344594 0.88962829 4285293153
-29.664375 -11.913345 0.932253 4285162850
-29.739712 -11.835971 0.93317074 4284965732
-29.796261 -11.750856 0.93362945 4285294702
-29.878593 -11.675733 0.93472606 4285821046
-29.96216 -11.546774 0.93542469 4285097836
-30.002962 -11.455005 0.93551666 4286216056
-30.086435 -11.379413 0.93665701 4286412146
-30.187429 -11.25615 0.93780935 4286412400
-30.242325 -11.169168 0.93826431 4285556837
-30.38884 -11.115744 0.94095284 4285557350
-30.84374 -11.119223 0.95071971 4285425505
-31.221682 -11.146047 0.95901346 4286280561
-31.643383 -11.186005 0.96835417 4284833631
-36.547611 -8.2107258 1.0558091 4283714108
-17.276886 -36.274158 0.95505166 4284507467
-17.568436 -36.598129 0.96299493 4286678622
-16.895845 -34.203724 0.91751194 4283059769
-17.972578 -36.12991 0.95893383 4283978825
-17.976276 -35.853954 0.95444447 4283454528
-17.359568 -34.201519 0.92172611 4283982158
-17.148653 -33.518047 0.90860873 4284113235
-17.327242 -33.611012 0.91178972 4284572233
-17.565868 -33.688572 0.91529047 4283980597
-17.623005 -33.541927 0.91344792 4285297731
-17.714504 -33.462547 0.9130289 4285033554
-17.877506 -33.141331 0.90939361 4284966482
-17.353352 -30.528294 0.86230797 4286415178
-17.435537 -30.451935 0.86191118 4284571974
-17.506554 -30.356245 0.86110038 4285030215
-17.591057 -30.284679 0.86081481 4285686349
-17.569912 -29.707836 0.85145998 4292130202
-17.326504 -28.77248 0.83420068 4285951847
-17.40774 -28.705086 0.83398235 4286737775
-17.147421 -28.071041 0.82131714 4283718232
-17.437815 -28.35269 0.82876766 4284111205
-17.269512 -27.781055 0.81806087 4284437841
-32.026077 -11.209476 0.97673708 4285360227
-32.492847 -11.202757 0.98672372 4285031006
-32.902981 -11.229885 0.99574012 4284767575
-33.366596 -11.272536 1.0060334 4284767321
-33.827625 -11.252358 1.0158321 4284176212
-34.317059 -11.296866 1.0267113 4284438099
-34.788128 -11.332191 1.0371344 4284701529
-35.280643 -11.371421 1.0480552 4283648846
-35.806816 -11.356422 1.0593494 4286152061
-36.338669 -11.400844 1.0711784 4286940024
-36.619125 -10.73763 1.0726959 4284835927
-37.319214 -10.817108 1.0884771 4283584830
-37.018074 -10.603823 1.0804851 4285097300
-37.042599 -10.485456 1.0802339 4284833364
-37.325409 -10.376605 1.0857316 4285294670
-37.447777 -10.158479 1.087001 4284175682
-41.633152 -8.8803511 1.1719807 4285821278
-41.468407 -8.7091761 1.1674393 4282598956
-41.527897 -8.5858431 1.1681241 4284505412
-11.229919 -24.369387 0.59600395 4284571724
-11.32288 -24.373072 0.59668875 4282533421
-19.026638 -40.497284 1.0403852 4284704826
-19.385782 -40.116005 1.0372679 4284902471
-18.956116 -38.901733 1.0134038 4284374338
-18.226952 -34.183903 0.92959833 4284440910
-18.676289 -34.383675 0.93714732 4285360712
-18.153934 -33.160313 0.91237539 4285623874
-18.259365 -32.984634 0.91058147 4284768562
-18.374569 -32.950794 0.91117007 4287595094
-18.968245 -33.779724 0.93030423 4285688117
-17.702679 -30.150959 0.85982722 4287327840
-17.971098 -28.723639 0.84018385 4284306257
-18.170126 -28.84436 0.84417653 4283977553
-18.626066 -29.27059 0.85566807 4284768335
-18.795078 -29.336044 0.85849583 4284570178
-18.943192 -29.367025 0.86057055 4285489730
-18.205162 -24.912971 0.78465104 4285687907
-18.270716 -24.840321 0.78433341 4285884512
-36.840622 -11.432527 1.0822749 4288449406
-42.556091 -11.694356 1.2085763 4285097542
-39.620876 -10.551091 1.1371002 4283917164
-39.764923 -10.456294 1.1396635 4280892242
-43.935738 -10.532798 1.2318791 4292071119
-44.007187 -10.040504 1.2307119 4283648326
-46.046478 -9.977253 1.2755103 4284438591
-46.539131 -8.8678923 1.2809299 4283057205
-46.567825 -8.7220554 1.2808757 4282992438
-19.231178 -28.91493 0.85675091 4285490018
-19.432629 -28.537369 0.85321754 4282334517
-19.196335 -27.903244 0.84093863 4285490017
-19.367685 -27.967287 0.84383625 4285555812
-19.691586 -28.250952 0.85178465 4285293412
-19.674047 -27.944336 0.84696221 4285752420
-19.387568 -19.818405 0.72751796 4286214234
-19.940531 -18.97761 0.7241559 4286212424
-20.017408 -18.756229 0.72240967 4286083661
-20.047644 -18.667921 0.72171116 4286478915
-20.1462 -18.643658 0.7227937 4284570945
-20.095322 -18.480419 0.72000957 4285621858
-20.281349 -18.478384 0.72263396 4285491041
-20.308863 -18.38829 0.72189504 4285293407
-20.347872 -18.308931 0.72145939 4286279786
-45.54134 -11.829771 1.2748418 4280429127
-46.439426 -11.831042 1.2946063 4281482570
-47.194004 -11.866586 1.3113964 4281744459
-48.098511 -11.934672 1.3316864 4281745482
-48.996151 -11.995271 1.3517923 4282271306
-47.928307 -10.62316 1.3205696 4284047427
-48.771206 -9.8513689 1.3353102 4282930220
-49.517967 -9.8412304 1.3518419 4284377921
-54.930237 -10.742135 1.4765264 4285296718
-51.400558 -9.4643593 1.3919466 4283257153
-52.627129 -9.4351282 1.4191893 4283650615
-51.337708 -9.0368023 1.3886405 4284377414
-51.473167 -8.8942842 1.3910242 4283718970
-54.53442 -9.2492485 1.460894 4285363034
-56.83099 -9.3651457 1.5127347 4282796868
-55.197044 -8.9169436 1.4743278 4287334518
-56.855305 -9.0028477 1.5117502 4283979848
-61.548344 -9.0566006 1.6170347 4287382855
-21.107378 -31.446573 0.91620278 4287988348
-21.069689 -31.178354 0.91168845 4294637286
-20.998363 -29.648508 0.88771427 4285293154
-20.956888 -29.393875 0.88341314 4285423968
-20.937178 -29.172365 0.87986493 4286542193
-20.945389 -28.896078 0.87583297 4285819236
-20.853041 -27.930849 0.860416 4285358944
-20.821739 -27.707323 0.85674483 4284832604
-20.820347 -27.436018 0.85273772 4286542449
-20.789848 -27.218302 0.84917605 4285885030
-20.743675 -26.981966 0.84516037 4286477680
-20.716866 -26.773144 0.84178478 4285490527
-20.737967 -26.542116 0.83867598 4286936949
-20.695152 -26.316841 0.8348822 4286081642
-20.665897 -26.110966 0.83153993 4286082153
-20.68985 -25.890715 0.82865232 4285950571
-20.661903 -25.690413 0.82542092 4286938492
-20.62413 -25.479628 0.82192338 4285360238
-20.633694 -25.248224 0.81872821 4285031273
-20.597185 -25.043098 0.81534153 4285162859
-20.569725 -24.8508 0.81225598 4284965739
-20.531078 -24.646584 0.80886644 4285162859
-20.545053 -24.429453 0.80596739 4284964967
-20.509113 -24.232351 0.80272627 4285228904
-20.473425 -24.037235 0.7995218 4285228389
-20.481905 -23.819965 0.79658002 4284703078
-20.4543 -23.637939 0.79367548 4285031784
-20.41922 -23.448753 0.79058075 4285032040
-20.43672 -23.247942 0.7880125 4284702561
-20.48241 -23.154322 0.7872985 4284571492
-20.547543 -23.083113 0.78715122 4284571491
-20.58989 -22.986315 0.78636062 4284571237
-20.68906 -22.881218 0.78620887 4286282093
-20.749235 -22.804974 0.78594589 4284307800
-20.806463 -22.725609 0.78560704 4284900453
-20.901617 -22.616625 0.78537732 4284768097
-20.967594 -22.547171 0.78530145 4284767838
-21.030651 -22.474579 0.78514981 4285424737
-21.093428 -22.401817 0.78499693 4285556065
-21.189615 -22.294523 0.78483891 4286344035
-21.24078 -22.209717 0.78438222 4286279262
-21.302649 -22.136356 0.78422725 4286409826
-21.401646 -22.032473 0.7841801 4285884251
-21.512741 -21.873236 0.78356415 4286476381
-21.610443 -21.7684 0.78351438 4286674782
-21.662359 -21.685482 0.78312916 4285884487
-21.729467 -21.618015 0.78315943 4285820746
-21.786465 -21.540451 0.78292388 4286018882
-21.886808 -21.438589 0.78298485 4285688892
-21.946032 -21.363401 0.78282428 4287465039
-20.615927 -18.263243 0.72474426 4286345060
-20.957291 -18.163813 0.72846156 4286083404
-21.052605 -18.132544 0.72946376 4284112424
-61.860226 -9.3012371 1.6249843 4285224015
-64.966064 -9.353054 1.6947297 4287317323
-64.939232 -9.0370722 1.6929981 4288251779
-64.961235 -8.6245108 1.6919702 4286142015
-22.016422 -21.299217 0.78296566 4285952569
-22.092627 -21.174049 0.78241771 4287462999
-22.211845 -21.025127 0.78216642 4286869592
-22.920879 -20.192884 0.78179526 4285818462
-23.01335 -20.084295 0.78180498 4286607456
-23.194355 -19.864477 0.78174311 4286874184
-23.273088 -19.744221 0.78144526 4287134043
-23.329531 -19.667744 0.78134727 4287330657
-23.388758 -19.593685 0.78132385 4287396710
-23.479893 -19.484171 0.78136492 4286937689
-23.541626 -19.412191 0.78141671 4286740310
-23.558399 -19.303158 0.78036708 4286476891
-23.189978 -18.818806 0.76917541 4286936937
-22.74682 -18.339888 0.75693226 4286674026
-22.77696 -18.247608 0.75629735 4286542442
-23.87674 -19.012108 0.78169012 4286411113
-23.035154 -18.162758 0.75918728 4286476905
-24.037619 -18.836601 0.78207719 4286608494
-22.975504 -17.884563 0.755068 4286542961
-24.1656 -18.635223 0.78170151 4285556578
-24.229435 -18.564665 0.78186005 4286280300
-24.310526 -18.507231 0.78243542 4286543471
-24.377422 -18.378849 0.78201133 4286082407
-24.435722 -18.30393 0.78205413 4286872951
-24.496983 -18.231228 0.7821722 4286873209
-24.558046 -18.158308 0.78229046 4287069564
-26.223429 -13.372674 0.76153344 4292596171
-26.243006 -13.279767 0.76105422 4291936690
-26.316862 -13.162819 0.76131219 4288910212
-26.36253 -13.08313 0.761401 4291145367
-26.42766 -13.013015 0.76190645 4293051044
-26.505714 -12.897667 0.76227611 4285621341
-26.575771 -12.829501 0.76289523 4286279272
-26.694283 -12.784368 0.76453686 4285818719
-26.762272 -12.714545 0.76511687 4285555291
-26.83902 -12.597362 0.76548266 4285555546
-27.793198 -11.491103 0.77338684 4285819234
-27.73583 -11.366117 0.77145636 4285884512
-27.851915 -11.312361 0.77308708 4286411631
-29.628046 -9.0092697 0.78961438 4285754457
-29.573023 -8.8916311 0.7879374 4283453240
-31.715319 -7.4604502 0.81945413 4284175949
-24.650444 -18.049137 0.78250754 4286543222
-24.717394 -17.980412 0.78277558 4285819499
-24.764772 -17.897345 0.7825883 4286017133
-24.85924 -17.789436 0.78287894 4285885548
-24.922218 -17.717596 0.78306913 4285556583
-24.981735 -17.643221 0.78318357 4286082670
-25.055737 -17.578989 0.78363919 4286345842
-25.130789 -17.456963 0.78350914 4285951085
-25.201027 -17.389828 0.78388751 4286543220
-25.239799 -17.300898 0.78354323 4286214511
-25.349815 -17.202814 0.78424585 4286477427
-25.407797 -17.126957 0.78435659 4286082668
-25.458895 -17.046452 0.78431416 4285359200
-25.539652 -16.928173 0.78436911 4285753706
-25.601803 -16.854969 0.78459191 4285621867
-25.660387 -16.779343 0.78473735 4285622381
-25.723764 -16.706787 0.78499603 4285359211
-25.828136 -16.603468 0.78561813 4285951346
-25.875877 -16.520582 0.78553402 4285556844
-25.945272 -16.451496 0.78594267 4286214516
-26.031719 -16.336176 0.78618288 4286017135
-26.092165 -16.261158 0.78640133 4285951343
-26.152388 -16.185898 0.78661841 4286214516
-26.239346 -16.070534 0.7868942 4284833894
-26.292191 -15.990574 0.78695816 4285360496
-26.370426 -15.925966 0.78759086 4284965995
-26.419418 -15.843505 0.78757864 4284769131
-26.530602 -15.742028 0.78841984 4284703338
-26.577286 -15.658032 0.78836745 4284966510
-26.63405 -15.579974 0.78854316 4284900717
-26.739056 -15.474037 0.78926814 4284768620
-26.779688 -15.386409 0.78909999 4284176229
-26.861668 -15.322496 0.7898432 4284308326
-26.934362 -15.197395 0.78988266 4284175963
-27.005434 -15.126845 0.79039586 4285557095
-27.06064 -15.047227 0.79056787 4284109912
-27.13484 -14.978051 0.79115683 4285095774
-27.207672 -14.852585 0.79123122 4285490015
-27.290157 -14.787497 0.79200858 4285030750
-27.337317 -14.703046 0.79202545 4288980130
-27.421211 -14.583158 0.79236323 4291017143
-27.487173 -14.50857 0.79279721 4291807943
-27.558228 -14.436479 0.79334348 4292136652
-27.625555 -14.362245 0.79381323 4292201930
-27.713306 -14.243495 0.79426283 4292530889
-28.523506 -13.281219 0.79992843 4285424474
-28.560551 -13.190228 0.79982233 4285490526
-28.657784 -13.072648 0.80056423 4285095773
-28.710527 -12.988674 0.8007971 4285227620
-28.77762 -12.911044 0.80133384 4285293414
-28.864584 -12.787975 0.80188388 4285029468
-28.947586 -12.716881 0.80275947 4285622375
-29.010294 -12.636597 0.80321848 4286150006
-29.078266 -12.558424 0.80378956 4289240732
-29.152712 -12.428817 0.8041091 4291803560
-29.216463 -12.348401 0.80460417 4284238406
-29.303953 -12.277744 0.80559146 4285556067
-29.606291 -11.864418 0.80785257 4285754220
-29.670362 -11.782722 0.8083818 4285032040
-29.737913 -11.702196 0.80898511 4284834921
-29.823864 -11.628621 0.80996668 4284571749
-29.92028 -11.504916 0.81081021 4284769128
-29.970293 -11.416835 0.81107056 4285755248
-30.034996 -11.334208 0.81163347 4285688167
-30.107738 -11.200643 0.81202006 4285622630
-30.183098 -11.12149 0.81280893 4285820009
-30.48535 -11.124886 0.81818014 4286017388
-30.884308 -11.106666 0.82515424 4285688167
-31.266333 -11.133909 0.83211458 4286017394
-31.66201 -11.163502 0.83933717 4286083956
-33.87323 -7.5763865 0.8595655 4283455291
-15.82362 -38.236801 0.80738902 4283718746
-15.942797 -38.187759 0.80750769 4283389013
-16.068687 -38.154968 0.80788797 4283453779
-16.252834 -38.093021 0.80826682 4284376413
-16.373108 -38.046307 0.80844146 4283520319
-16.493258 -37.999214 0.80861533 4284838225
-16.618792 -37.964584 0.80899268 4282863939
-15.777828 -24.072418 0.62741584 4283845178
-15.853561 -24.025133 0.62749672 4284900187
-32.097797 -11.204541 0.84735459 4285360226
-32.546062 -11.190021 0.85526764 4285031523
-32.95274 -11.214817 0.86267453 4284965213
-33.447006 -11.266492 0.87182248 4285293664
-33.904606 -11.243737 0.87988156 4284635989
-34.428619 -11.298153 0.88959205 4284964954
-34.900108 -11.332094 0.898242 4284438358
-35.410839 -11.314417 0.90731716 4283255117
-35.944427 -11.361084 0.91717273 4285887600
-36.73045 -10.730222 0.92768276 4284835146
-36.590309 -10.565104 0.92421508 4284308550
-36.984886 -10.428594 0.93058759 4284637265
-37.154003 -10.288054 0.93291497 4284701772
-17.166071 -35.939117 0.78647339 4284046910
-17.528883 -35.978298 0.78953803 4284769345
-17.121246 -34.847507 0.77214342 4283980870
-17.360945 -35.063942 0.77662992 4283387970
-17.633715 -35.203503 0.7803787 4283981376
-17.291838 -34.239285 0.76560426 4284904020
-17.797316 -34.982803 0.77875662 4283390011
-18.138885 -35.251045 0.78467214 4285165897
-17.37298 -33.478405 0.75652993 4283257391
-17.492708 -33.45467 0.75711775 4286151507
-17.887394 -33.961124 0.76646614 4285559888
-17.976723 -33.744873 0.76440692 4284241222
-18.106009 -33.734966 0.76525766 4285558866
-18.17786 -32.747761 0.75342077 4286871882
-17.436449 -30.038357 0.7139014 4285621074
-17.519861 -29.966864 0.71368092 4285290057
-17.489782 -29.699724 0.71014106 4292592312
-17.697294 -29.735386 0.71225154 4294966731
-17.067694 -28.456478 0.69143277 4294965704
-17.387865 -28.793497 0.69817036 4285226833
-17.669561 -28.957376 0.70248079 4285228115
-17.84952 -29.051249 0.7051053 4285490538
-17.963713 -29.035025 0.70584852 4287922296
-17.873774 -28.189026 0.69482017 4285357147
-17.997496 -28.190987 0.69588298 4285160781
-36.482471 -11.405708 0.92710316 4286806896
-36.65464 -11.33374 0.92976528 4283778620
-37.54464 -10.713339 0.94230223 4285032536
-41.59211 -8.8220205 1.0069368 4284374591
-41.442696 -8.6547127 1.0034558 4284703547
-46.531246 -8.8052874 1.0979247 4286742635
-46.620632 -8.6708078 1.0990345 4283717185
-19.471586 -43.658573 0.90217888 4285227591
-19.693541 -43.791748 0.90540391 4283783223
-19.802898 -42.768024 0.89288008 4283126591
-19.908587 -42.470417 0.88976461 4284770113
-20.226583 -42.807129 0.89631838 4286481765
-19.089563 -39.714226 0.84854394 4286942307
-18.735155 -34.274796 0.77683014 4287663705
-18.946632 -34.409805 0.78014451 4285886790
-18.931295 -33.50182 0.76868695 4284899901
-18.732533 -32.902508 0.75967216 4284900685
-19.273294 -33.620403 0.77284598 4284242760
-18.237856 -29.279009 0.71108967 4285484128
-18.294645 -29.064749 0.70896125 4286273907
-18.935066 -29.37554 0.71810997 4286015310
-19.227558 -28.929304 0.71525222 4285489761
-18.333527 -24.934124 0.66022277 4286279790
-18.364918 -24.814108 0.659118 4285556065
-42.67979 -11.673456 1.0406386 4285228620
-43.452156 -11.738422 1.0550013 4284767812
-44.201324 -11.717996 1.0685433 4284175678
-44.994698 -11.77742 1.0832773 4286083175
-45.777264 -11.828968 1.0977813 4283584067
-46.648888 -11.820305 1.1136565 4283913303
-47.491222 -11.875299 1.1292869 4282927686
-48.384781 -11.937541 1.1458961 4286548087
-47.724186 -11.616123 1.132241 4282009666
-47.767742 -11.388982 1.1319729 4293058009
-45.808346 -10.090845 1.0900149 4283983680
-47.997154 -10.335858 1.1313496 4285886300
-47.021103 -9.6640158 1.1104473 4284180281
-47.061253 -9.4417019 1.1102839 4283520050
-49.212685 -9.7121744 1.1510549 4283652407
-52.08411 -10.108335 1.205624 4285098836
-51.589882 -9.4259281 1.1938012 4283915327
-52.451111 -9.3280668 1.2093892 4284180038
-51.459713 -8.9856091 1.1897432 4283323442
-53.944439 -9.2442951 1.2366896 4285495379
-51.507412 -8.6611814 1.1894052 4284508498
-55.169041 -9.0087347 1.2585559 4286022011
-56.823765 -9.0953875 1.2895317 4283386422
-21.259846 -32.808346 0.77920508 4284896829
-21.148737 -31.645288 0.76430672 4284106566
-21.109987 -31.372967 0.76072121 4291342259
-21.115194 -31.06344 0.75708812 4284774500
-21.095371 -30.82543 0.75408804 4285032290
-21.050669 -30.553143 0.75046784 4285424478
